0.22716, -3.304366, -2.151927
2.033085, 0.875875, 2.538623
4.450941, 4.977341, -1.61814
1.935575, -3.256577, 2.317447
-2.323237, 2.656664, -4.097574
-1.015976, -2.204101, 3.011795
4.184543, 4.356016, -1.89925
-4.092706, 3.849705, -2.559043
-0.186818, 3.18032, -1.613218
1.244307, -1.917217, 3.32268
-0.853406, -1.907851, -1.553494
-0.575372, 1.188066, 0.666185
1.468617, 3.505367, 1.134251
2.4125, 3.295671, 4.837179
-1.602353, 4.075541, -3.789196
2.000069, -2.223787, -4.580858
-2.339004, 0.279346, -0.047567
0.445697, 2.817044, 0.395386
-4.797801, -2.45226, -2.882791
-3.227537, -0.926021, 1.529697
-2.39945, 0.688575, -0.108944
0.39346, -3.656603, -2.226916
-4.437634, 2.791973, 1.800308
-1.333368, -3.090573, -1.545551
-1.920142, 2.161135, -1.173368
-1.014804, -2.814981, 2.346365
4.480812, -2.874297, 1.114376
4.250635, 1.001007, 1.759792
-4.75945, 4.932537, 3.413073
-3.142199, -0.72085, -2.254706
1.947323, -2.923198, -1.622008
-4.60873, -1.503094, 0.638292
2.976058, 4.407603, 3.538207
-1.150786, -4.300647, 3.665029
3.812137, -1.424037, 3.146749
0.072032, -1.835912, -0.365384
-4.800248, -1.338144, -2.267017
-2.721797, 3.010549, -0.896938
1.323892, -4.340159, -4.659076
3.107592, 1.319184, -3.368837
-4.883174, -1.533097, 3.711685
-3.62565, 4.550717, 2.242049
-4.975072, -4.626597, -3.020996
-3.52362, 4.366077, 1.94878
0.052227, 1.833372, 2.408157
2.982041, -4.726934, -0.378897
3.771065, 3.289975, 3.302887
-4.661604, 2.543314, 4.342257
3.158663, 2.154792, 3.095456
-0.490589, -4.982373, -0.872598
-3.384872, -3.33543, -0.040582
-0.5678, 1.175239, -0.508131
2.638213, 0.49396, -4.477447
4.077221, -0.108284, -3.80705
2.128175, 0.996605, -0.979815
-2.403974, 0.996029, 4.164439
-0.614566, -3.970962, -1.837097
-4.389217, 2.264565, -1.676039
2.36919, -0.333433, -0.663463
2.27315, 1.28189, 3.121679
2.345309, 0.65897, 3.017157
4.714907, -1.216844, 4.396925
3.556515, -3.990456, -2.699995
-3.826433, 4.300147, 1.790407
-3.899368, 0.692214, -3.934986
-4.860206, 1.332356, 3.648006
0.595342, -0.799524, -2.477042
-0.062945, -1.330495, 2.904686
1.25588, -4.763171, -0.756468
-2.76815, 3.180123, 0.310215
-2.288537, 2.23356, -1.044385
-2.49741, 0.794156, -3.532202
-1.597628, 4.676634, -1.22398
1.367453, -4.585586, 4.097952
-3.49538, 3.355177, 4.639197
4.430177, 1.286825, -0.62163
2.69063, -3.41983, -3.114726
-2.466887, 3.161324, 2.42661
-1.278425, 1.920443, 2.634757
4.395133, 1.918228, 2.134955
-1.871193, 3.65483, 3.203694
-1.6682, -3.624436, 1.234655
2.048176, 4.741777, -3.510196
4.666715, 2.912422, 2.696304
-1.421281, 2.368098, -4.447091
1.180802, 4.503854, -4.47491
3.684557, 3.150531, 0.850985
0.167414, -0.194925, 3.528206
-4.013178, -2.305785, 2.235865
2.589178, 0.752686, -1.336745
1.608369, 2.124634, -1.871293
-1.00687, 3.801005, -2.579069
2.34511, -3.605005, 4.882161
0.296268, -4.019103, 3.075441
0.865493, -0.569521, 2.568463
-2.857459, 4.151331, -3.100954
1.067732, 4.651633, -4.31172
2.869352, -1.96093, -0.417054
-4.719784, 1.602021, 4.760447
1.728281, 4.591861, -2.354692
-3.808102, 3.300764, -4.87243
0.308359, 0.498573, -4.308238
3.477534, -1.58665, 3.506595
3.094379, 2.169671, 3.166248
-4.65948, -0.427274, 3.791363
-1.430743, -1.248851, 0.461729
-4.080779, 0.623118, -4.624879
4.19969, 3.721736, -1.222999
2.450453, 3.70512, 2.829033
-1.579832, -0.461894, -1.359453
2.213538, -1.86651, 2.011763
0.186795, -4.626148, -1.658579
4.819324, 4.813097, -0.027409
-4.557615, -3.646845, -0.128924
-1.939936, 0.897099, 4.536086
-0.05949, 4.407623, -0.073168
4.420226, 0.791576, 4.374663
2.342118, -0.68833, 2.49173
4.791128, -4.487301, -3.399716
1.378509, -1.638859, -3.393459
-4.371308, 2.559583, 1.81239
-4.370354, -1.131723, 2.987033
-2.670845, 1.439836, 0.381353
0.628317, 0.451894, 2.712614
3.708299, 2.645002, -2.250572
-1.952588, -1.430229, -2.033759
-0.10657, 1.109641, -3.170042
-0.486037, -1.324372, -2.082984
-3.451907, 4.503197, -1.629736
4.639576, 0.715993, -2.438787
4.579557, -3.356639, -0.164199
4.474532, -2.416833, -0.887472
-2.98544, -2.416942, -2.703813
3.862403, -4.427904, 2.835094
-3.165266, 3.329605, -1.85839
-0.929993, 1.711391, -0.493039
-0.389315, -2.223144, 2.089839
4.002876, 0.693763, 4.293502
2.203373, -0.118308, -1.665594
-3.078298, -4.805601, 2.741176
2.624094, -0.729438, 0.181016
-3.658752, 1.407251, 1.114831
3.633222, 2.817324, -0.798236
-1.32243, 3.136329, 0.284158
-3.90407, -4.918561, 2.815169
-2.302247, 0.474807, 3.24638
1.809687, 3.188088, 4.064512
4.171982, 2.968181, -1.748836
-3.80136, -4.363743, -4.61772
-1.943635, -3.443714, -3.234745
-1.301101, -2.230452, -4.616873
1.036723, 4.861904, 2.379
-1.578586, 3.550305, -4.330013
1.134676, -0.159027, -1.174262
0.032503, -3.494514, 2.101887
-1.195446, -4.025687, 1.458866
-2.540991, -0.499281, -1.227297
-1.309164, 0.158267, 0.719333
-4.689968, -4.152432, 1.883994
-0.690095, -1.652875, 2.798647
-4.351617, -0.063124, 3.348843
-4.254832, 0.108257, -2.528621
-1.889411, -3.428674, 1.157985
-2.160141, -3.400882, 3.266385
1.304003, 4.001675, 4.246133
-1.971461, -1.103185, -0.935715
4.182548, 4.362463, 1.269175
3.818114, 0.685435, 3.56094
-0.933929, -0.260225, 0.554872
-3.764287, -3.971514, 4.25802
1.169003, 4.107931, 3.877141
2.276097, 0.904378, 2.852425
-1.332593, 1.361355, -1.016344
-0.859345, 2.560621, -1.437541
-4.252545, -0.428682, 3.532612
1.916716, 2.439773, 4.050446
2.168126, -3.309703, 4.022611
4.574183, -3.761969, 2.40255
-0.326418, 1.222316, -2.102787
-2.217364, -2.201225, 3.719094
-4.546286, -2.542614, 1.326659
0.780317, 0.962734, -0.045165
-1.084711, 3.39598, -1.73983
-3.207999, -1.609515, 0.17082
-4.20683, -4.154941, 4.694664
-3.951833, -2.60659, -1.839509
0.556422, 2.28981, -4.812589
4.144578, 2.583675, -0.354463
-4.482765, -3.149802, 2.149501
-1.447665, -4.950822, -4.694232
2.066602, 1.323859, -4.954217
-1.51539, 0.643754, -4.002339
-3.55629, 3.091124, -3.295297
3.445653, 0.695859, -3.77889
-4.577828, -1.399702, 2.708514
4.395392, -4.006037, -2.309914
-0.31605, 2.752784, -3.221944
1.680535, 3.673034, 1.889666
2.529511, -3.263418, 4.54637
-4.392834, -2.313855, -4.101413
3.694645, -4.283942, -2.131784
2.8316, 2.545795, 4.082529
-4.813749, -0.493746, -4.211242
-3.19323, 0.144964, -1.982695
-0.782008, -0.276292, -3.084302
2.31453, 4.299425, 2.208852
1.958785, -2.657071, 2.721382
-4.7069, 0.262334, -0.767322
4.611647, 3.161401, 3.321079
2.274907, 1.394798, 3.016772
-0.917494, 3.831299, -2.629169
-3.668947, 4.585453, -3.422221
-4.915673, -1.834606, -4.757794
-0.711489, -2.382259, -2.162373
-3.282326, 1.043832, 1.590812
3.362658, 2.431091, 4.386768
4.98077, -4.682131, 0.148048
-0.937673, -3.867256, -3.891542
3.371584, -3.251935, 3.353771
-2.805639, -3.963638, 3.279679
-0.00684, 4.462328, 3.610921
4.033617, 2.427999, 0.953428
-4.220022, 1.543891, 1.847548
-3.831586, 3.799625, 1.728052
-4.08382, 0.13993, -4.355967
-1.776878, 4.084373, 0.271118
2.630985, -4.141397, 3.745602
3.765951, 3.909097, 2.82076
2.651525, 3.597534, -1.674574
-1.196606, 1.067006, -1.731379
0.454538, 1.219812, 3.8325
2.594938, 3.815077, 2.462516
-3.866292, 2.708677, -1.160014
-2.052713, -2.580234, -4.721202
-1.282051, -2.928664, 2.520691
-2.256084, 2.686296, -3.989671
0.164261, 0.526542, -0.169348
-0.825683, 1.14645, 0.519444
0.09876, -4.250728, -1.7989
-4.358352, 2.426756, -3.652601
1.124521, -2.35423, 1.385804
-2.812902, -1.229727, -4.040115
1.548652, 0.825497, -2.454582
0.32908, 2.462204, 2.25291
0.126574, 0.312865, -3.93334
2.266221, -0.125552, -0.163622
-0.679328, 2.611928, -0.551367
0.559393, 4.440986, 0.231108
-4.988949, -2.884696, -3.677653
1.601543, -4.502446, -2.753487
-0.72197, 3.3923, -3.427494
3.864378, -2.724006, 3.077124
-1.812176, -2.132132, 0.951714
-1.055526, 1.001825, -1.368988
-2.5355, 4.857447, 3.789511
0.022497, 1.804621, -4.200715
2.718012, 0.895783, 0.480148
2.209964, 3.800511, -0.866748
0.289021, 1.947404, -1.133878
-4.909468, -0.808176, -4.002408
0.013572, 4.101403, 0.641001
-1.951088, 4.687212, -2.603678
-4.850858, 3.263178, -1.370697
0.62832, 1.044882, -4.837467
-3.005146, -3.40245, 0.779026
-0.221714, 1.962903, -3.805727
1.800619, 1.882018, -1.020238
1.57726, 3.025369, -4.046434
-3.136924, -3.761359, 4.401664
3.87075, 4.437606, 0.369189
1.471813, -1.632423, 4.446125
2.638669, 1.099136, 4.245443
4.296351, 2.63352, -1.722585
1.641017, -3.352856, -2.775983
3.514756, -0.741145, 0.658619
-3.432463, -2.064155, -2.292545
-1.257179, 2.541804, -3.239387
-4.810255, -0.19241, 0.051727
0.9253, -0.017711, -4.9655
2.589543, -3.423139, 3.029174
-2.045778, 1.417811, -1.095776
-1.01714, 3.629157, 4.39947
3.226335, 1.215512, 2.88528
0.415665, 3.932916, 4.272822
-2.1354, 1.63443, 2.330315
1.494725, 3.89806, 4.590103
1.001325, -2.56629, -0.837748
-1.465571, 4.316833, -1.410604
-4.126924, -3.936827, -1.146809
-0.137307, 0.636936, 3.450128
4.025591, -1.407252, 3.56081
3.764212, -0.576244, 3.684275
4.03126, 3.958843, 2.987767
1.1453, 4.005498, 4.328874
-4.143389, -3.124919, 3.532897
0.878887, 3.995224, -4.496417
-4.359251, 2.29786, 0.867738
-3.830519, 0.299517, -3.589253
2.778715, 3.020923, 2.383515
4.726267, 0.826833, 1.066313
-3.313168, 0.978521, -0.357047
-2.744542, 3.257815, 3.901917
-3.683592, 0.433612, 4.546775
2.476279, 1.146996, -2.814592
-3.355109, 4.102554, -0.753259
-0.090484, -1.271335, 1.68228
-4.763493, 3.885507, 3.596588
1.339466, 4.044456, -3.075387
4.305193, 2.811261, 4.342757
-2.097804, -1.07625, -0.309176
1.022694, 0.654042, -4.188891
-3.805737, 1.207404, -1.85893
-2.148505, -1.521937, -4.597947
3.588117, -3.766924, 0.363017
-2.39972, 2.216522, -1.334725
-1.709322, -1.172668, -4.791682
4.650531, 0.796966, 3.104451
-2.493844, -0.930491, -2.42518
2.984375, -3.229052, -0.172662
-3.651867, 1.809655, -0.471131
4.476249, 1.759169, 4.945035
0.828575, 2.694241, 1.696464
1.673379, 3.027291, 0.827322
-1.93725, -4.236472, 0.694956
3.163474, 1.574295, -4.979702
-0.679003, 2.674045, 3.629713
4.668527, 2.9552, 1.32437
0.724725, -1.582214, -4.846871
3.044716, -4.852513, 4.773031
3.598923, 3.111845, -3.398799
-1.745902, 0.997667, -3.015887
-1.88318, 0.919489, -4.674459
-0.013807, -3.528667, 0.086011
1.957942, 0.280015, -3.020471
-4.773168, 2.975714, 1.684722
1.721686, -2.288155, 1.42074
-0.695201, 4.530478, -3.59985
2.023381, 2.995128, 3.507275
0.708471, -3.851711, -2.428169
-0.096436, -3.646637, -1.216449
-0.359987, -1.530953, -4.832345
-3.086462, 0.390672, 0.864779
-0.611798, -4.680974, -0.808145
2.583751, 3.56036, 0.64662
3.120348, 1.087972, 2.448641
2.726219, 0.378999, -2.191932
-3.963768, -1.377257, 4.148898
3.33067, 2.429801, 1.36604
3.006716, 1.07027, -4.809788
-0.455439, 4.34037, 3.197873
-1.21028, 1.759454, -1.250536
-2.808652, -3.954447, -1.843218
-3.060981, -4.864809, 3.306769
-3.071883, -3.701151, 1.114846
2.140299, -4.488696, -4.482475
1.084524, 4.172734, -3.48908
-3.915611, -1.106936, -1.378748
-0.80959, -0.593925, -1.028392
1.091145, -0.062588, -1.402149
2.009026, 2.42404, 4.091929
-0.582893, 2.440406, -0.568152
1.515929, 0.402882, -1.271933
-4.200909, 0.258297, 4.807985
-3.986189, 0.043916, 0.282369
-2.19501, 0.109248, 3.639552
-3.425945, -3.861003, -0.978702
2.959109, -2.670565, 2.175874
1.147231, -3.251532, -2.057685
2.324486, 2.172264, -2.035536
-3.061956, 2.947746, -4.194391
-3.724003, 1.957011, 3.321861
4.635892, 3.332207, -4.066065
-2.992509, 1.547581, 0.81011
-0.006231, 3.014267, -4.450385
4.89719, -0.519338, -2.924646
2.781237, 1.505919, 4.185538
4.136505, -0.285244, 2.326256
-0.749787, 0.980256, 4.345124
-2.681028, -0.773253, 3.796629
-0.954191, -2.963125, 4.772842
-4.228849, 4.919624, -4.046794
-3.029783, 3.186551, -0.06127
1.246492, 1.622602, 3.748304
-3.247159, -3.273423, 3.064643
-1.636543, 4.181046, -2.471238
1.465312, -2.859159, 2.822317
2.077413, -1.603239, 0.305317
2.900113, -1.262452, -3.083117
4.061836, -4.91721, -3.925751
-0.276419, 2.777097, 1.517014
2.368617, 0.200022, -3.860284
2.179828, 1.814525, 1.526353
4.894045, -4.395875, 0.871698
-4.064634, 1.985691, 3.238436
3.632483, -3.264647, 1.315031
1.946674, 3.30544, 3.113838
-3.453005, -0.574512, 4.173393
-3.606575, 4.582324, 1.111584
-0.941904, -2.817856, -2.671571
4.686769, 1.494104, -1.021512
-0.477884, 2.23613, -1.35621
-0.584293, -0.177802, 3.266096
2.155027, -0.629529, 2.565232
3.227581, -4.643162, -1.784752
-3.841881, -1.752745, -0.165658
-0.088594, -2.794478, 1.297417
2.121972, 0.782099, -2.816348
-0.882714, 1.666874, 2.751406
-1.709319, -1.657754, -3.543844
-4.922172, -3.951014, 4.636605
3.851286, 0.246028, 2.914983
-4.259611, 4.725129, 1.576676
-4.116344, 3.382224, -0.899351
1.03711, 2.807237, 4.557821
-4.249808, -3.165989, 2.095272
3.421995, 3.22052, -4.640157
3.53021, 1.764095, 4.403069
4.017389, 4.451935, -0.534335
4.70915, 0.415184, -0.325528
-1.587525, 3.064083, 1.833536
-4.752752, -1.752133, 0.531763
-3.944172, 1.143384, -0.421326
-2.297086, 3.1103, 0.031852
0.30817, 1.066105, 4.014818
-4.665333, 2.258994, -0.781068
-1.685944, 2.065723, 0.572597
-2.781507, -4.287822, 0.210203
1.299404, -0.865362, -2.292601
-3.768102, -4.002903, -1.454846
2.511062, 3.424179, -4.171699
1.579925, 4.169003, 0.969496
-1.171165, -4.611289, -4.120052
2.582599, 4.505205, -4.57612
2.957263, 0.678395, 0.309196
-1.116744, -3.812222, 4.24711
-0.629345, -0.03443, 4.89673
-4.040549, 2.721738, 4.09635
-1.143205, 0.578359, -0.589683
-2.869743, -1.62488, 3.702859
-4.11285, -4.248497, -3.367835
-0.893088, 1.365962, -3.151809
-2.151923, -4.905113, -3.656394
3.982594, 4.391828, -0.754469
2.211743, -4.548426, -4.291571
2.043189, -0.141372, -2.985309
2.673909, -2.36811, 0.798701
3.611759, -1.556729, 2.481915
4.984804, -0.659593, 1.22702
2.140095, 1.178589, 4.620801
0.026974, 1.946461, 0.393376
-1.255498, 0.468938, 0.137983
-2.982076, -4.794999, -2.367529
2.753856, -0.269718, -4.825227
-3.749671, 2.564454, 0.002011
-4.321648, -0.622255, -2.163585
1.485534, 2.483842, 3.119292
-1.890014, 0.097304, -0.756441
-1.796676, -2.13865, 1.241607
2.401757, 0.660896, -1.416187
-2.37556, -2.724427, -0.137437
3.278311, -1.653202, -4.596982
-1.245272, -2.840381, 1.431838
-4.573248, 3.925511, -1.865548
2.838457, -0.786424, -0.52691
0.284986, 2.992063, -0.710521
-4.206393, -0.135485, -3.606539
-3.319446, 0.49532, -4.687359
4.207288, -2.273752, -3.219874
1.83088, 1.391717, -3.079763
3.203025, 2.119823, 0.642453
-4.266039, -2.217633, -3.10797
0.674834, 4.751851, -2.368722
3.263214, 3.110466, -2.618337
0.782895, 2.508343, -2.524464
-3.881354, 4.355339, 0.469093
-4.449335, 1.934955, 0.6939
-1.672132, 2.208787, -2.12411
3.445743, 0.428834, -4.090791
1.731833, -4.35038, -2.181568
-2.390336, -4.684845, 2.029379
-0.838872, 2.017463, -2.794967
-4.314751, 2.934645, -0.889609
-3.297005, 2.063186, -1.173827
2.982428, 0.93712, -2.794453
-0.252002, 2.836425, 4.06554
-2.963018, 4.290422, 1.416356
2.367061, -2.232524, 3.588837
1.707949, 4.579123, -3.748412
3.294278, 3.135167, -1.419014
-2.73525, -3.126082, 0.767995
-3.925086, 1.787919, 2.319155
4.122987, 3.456468, 3.638451
-1.137972, 1.714537, -1.743509
-0.282227, 3.846603, -2.544801
4.829855, -3.135906, 3.835097
-2.642604, -4.356953, 4.877263
4.122862, -4.614266, 2.881913
0.679312, 0.631467, -2.07783
4.806944, -4.644788, 0.62496
1.758436, -4.393836, -4.375928
-3.409016, 1.189354, 1.571515
0.452622, -3.033457, 4.739912
-4.317239, 0.513762, -2.47751
3.809586, -2.863149, -0.728164
2.001918, 0.185872, -4.97121
-3.550261, -4.457566, -0.484613
4.530202, -4.678672, 4.639875
0.18532, -0.319418, -0.527883
-2.869968, -4.355186, -1.624697
-3.951812, 1.895943, 1.8763
-2.943963, 0.640532, 0.686245
-3.459201, 0.055332, 3.411324
-1.127412, 3.17061, -4.177121
3.684716, 1.819464, 1.98234
4.066582, -3.927361, 0.227486
-3.788715, 0.673082, -4.602299
-1.069175, 1.818873, -1.140904
2.554957, -4.294663, -4.705503
-4.326853, -2.366788, 2.778315
-4.034618, -3.090951, -0.967015
-1.99951, -0.024729, -2.008493
0.12598, -3.169051, 1.355306
-2.243238, 1.295578, -1.167699
-4.217672, 4.589936, 2.328455
-0.429662, -1.607555, 0.3759
-2.316027, 3.265901, -0.839801
0.893254, -0.065533, 1.66431
-2.296487, -3.878207, 2.713843
-4.512168, 4.210819, -0.322863
3.53725, -4.243075, -1.606612
4.669689, 1.138392, -3.545939
1.467718, -3.653331, 4.436051
2.77685, -0.069472, -2.888658
-2.628523, -3.926452, -2.406333
-3.997616, -1.237869, 4.681383
4.974148, 2.797262, 4.431221
-3.928702, -4.866233, -3.335355
-3.998283, -0.497393, 1.911171
-3.708926, 0.306128, -2.018086
0.478666, 2.823227, 2.869674
1.32065, -1.275885, -2.639213
2.8492, -2.440443, -0.414333
3.563993, 3.996745, 3.645224
1.884671, 0.234922, 0.924623
-0.77733, -2.779993, 0.97731
-4.53502, -3.484576, 4.71325
-1.499075, 4.670893, -3.748223
-1.713999, 4.792017, 1.881389
1.41655, 4.647383, 3.258029
-3.480546, -2.456815, -2.546772
2.383912, -1.826651, 3.589316
3.585413, 4.113008, -4.827444
3.947395, -3.664771, 1.025547
1.80252, 4.574272, -3.930644
-2.167552, -1.794342, -3.644073
-4.305703, -2.01612, -0.719907
0.21798, -4.985399, -2.690705
-1.847241, -0.754843, 0.678823
0.008698, 1.93103, -3.286602
-4.33094, 0.48574, -3.142251
3.442435, 3.492365, 3.955806
0.955436, -1.88947, -1.61867
4.605908, 1.221865, 3.579406
-2.295466, -1.628728, 0.08037
3.557853, 0.196128, 0.908559
4.006022, -1.565255, 1.604115
-1.787232, -4.746223, 4.426805
-3.011954, -3.532131, 1.084833
-1.287312, -3.664112, 4.824945
4.231601, -1.302219, -0.483004
1.079859, -0.718327, 0.815187
2.563699, -3.467704, -2.745249
-4.777723, 4.635332, -2.860715
3.551276, 3.082505, 4.014098
-2.47996, 3.394841, -1.500998
-1.769167, -4.361383, -1.421069
0.063816, 3.280771, 0.240307
-3.903121, -2.237042, -1.273701
-2.675101, -3.804654, -1.228115
4.716748, 2.678733, 4.816202
2.149636, 3.041606, -2.467537
4.738842, -0.47256, 0.818257
1.225257, -0.251161, 3.247937
-3.303827, -2.28198, 1.300466
0.098371, 1.184184, 4.870832
-0.343547, 0.923792, -2.996039
1.494889, 4.652577, -2.142013
4.890421, 3.192004, -0.334256
-1.776853, 1.600835, -2.580311
-4.553637, 3.290637, 0.372667
4.489294, -4.333615, -0.741058
0.175383, -1.659332, -4.046042
-0.424002, 2.567274, 3.364414
1.519502, -3.376633, 4.727585
4.29207, -4.177307, 0.710583
3.094628, -0.649275, 2.308037
3.777903, -3.454534, 3.696436
2.582623, 4.865675, -3.090866
-1.926915, 2.327996, -0.433256
-3.650827, 1.204372, -0.584909
2.259896, -3.918636, -4.085841
-2.935304, -4.39507, 0.139018
-1.019249, 0.011304, 2.538432
-0.272407, 4.51801, 2.018552
3.920687, -2.099447, 0.810114
-1.668685, 2.455951, -1.80033
3.181728, 4.287521, -2.576941
-3.644242, 2.152023, -4.20935
-2.5803, 4.097039, 1.508805
3.524354, 4.834014, -0.866915
1.864974, 3.563904, 1.714197
3.704895, 1.309102, -2.824743
1.482571, 3.967168, -0.417109
1.785411, -2.531029, 3.971721
0.244901, -1.848678, -0.766068
-2.146338, 2.237466, 3.067492
4.511444, 0.013271, -0.287044
-1.247444, 2.589443, 2.845146
4.364242, 3.077747, -0.89956
-3.714078, -3.839424, -1.469495
-4.583118, 3.618179, 1.723243
-4.142851, 1.498936, -2.813207
-4.810959, 4.31013, 0.894422
-1.678884, 0.323245, 0.58327
-1.302337, 1.432623, -3.680978
3.430715, 2.495796, 1.167704
0.90533, -3.939776, 1.635029
1.411456, 2.953688, 2.18747
-2.108776, -1.284951, 1.21041
-3.656857, 2.276879, 2.88339
1.309836, 4.304218, -3.693361
3.109066, 3.849059, -1.082789
0.454349, -4.32566, -1.374293
3.29958, -0.199529, -1.124603
0.652401, 1.93165, 2.826751
4.692764, 2.091276, -0.246034
-2.804157, 3.23582, 2.985291
3.469282, 1.420361, -0.044193
-0.844097, 2.439259, -1.478656
-2.016133, -0.930998, 2.796916
4.405424, -4.336517, 1.671147
-0.997247, -0.954407, -4.830615
-0.46797, 1.630864, -0.216168
1.740048, 1.321182, -4.96396
-2.902929, -3.293992, -0.476412
-2.948427, 0.549789, -4.844734
-3.978551, 1.958523, 3.618934
0.8651, -2.84547, 2.659491
-3.962033, 3.20473, 4.660623
4.400334, -3.577803, -8e-06
4.493761, -4.63127, 4.34145
3.979626, 3.362733, 4.512791
-2.330601, -2.023355, 0.387646
-0.767794, -3.616358, 1.918981
4.412338, -1.62357, 4.567723
4.371868, -0.639779, -1.590606
-1.370361, -0.371151, -2.084484
2.42494, 3.524205, -1.459739
1.951971, 2.040907, -4.142068
-4.376494, 2.073839, 2.538748
-2.7451, -3.584867, -2.065394
2.72275, 0.276096, 0.440579
4.446475, 2.663075, 0.734609
4.341261, 4.792716, 1.059731
1.050968, -1.799479, -3.632294
4.409294, -4.695021, -4.566557
1.758573, 3.708851, -1.998848
3.342203, -1.816793, 2.738443
0.108026, -0.892296, -4.40605
-1.399254, -1.850688, -1.078198
2.59995, -1.218439, 0.591365
-4.873465, -3.71962, 0.339477
-3.671182, 1.340897, 1.33833
-1.462943, 3.003183, -4.476611
3.309503, -4.083853, 2.933285
-4.250143, -0.268769, 3.603437
-2.300834, -0.358964, -1.586112
-2.607601, 1.433979, 3.255052
3.382962, -4.981478, -1.615294
1.840202, 1.933313, -3.500944
1.688259, -0.106318, 2.561673
-1.720665, -2.458711, -3.730117
-3.211414, 2.666709, 0.486711
0.198653, -2.932232, 2.359623
-4.05568, 2.344344, 3.875216
-1.377265, 4.119869, 4.600161
4.298066, 4.390404, -0.154456
-4.176248, -1.131426, -4.199644
-4.497255, -2.497339, 3.1675
-1.799108, 3.582693, -0.113861
-1.973347, -2.518343, 0.900567
-4.936471, -0.435544, 2.814305
4.411536, -4.34287, 3.162214
4.733962, -0.428021, -1.799804
3.419316, 2.694056, 1.289466
-4.172948, -4.33824, 3.814059
-1.04317, 3.778356, 4.093083
2.285726, 0.141999, 0.52521
2.672981, 0.221052, 4.993863
0.196271, -4.5659, -2.045109
-1.983626, 0.857801, 3.117022
-1.730361, 2.359516, 3.184125
0.867688, 1.844458, 3.730277
-1.931707, -0.479635, -1.846627
4.716911, -0.00954, 4.042664
-4.999236, -3.112643, -2.795241
-0.676356, 1.630823, -1.505689
2.147595, -4.157065, 4.084098
1.026486, -4.809453, 0.127799
-4.992211, -0.312119, 3.218586
2.459147, -3.82154, 1.3456
2.593547, 3.847878, 0.865147
-2.028561, -3.994199, 4.311132
2.460245, -0.705081, -3.250538
1.918358, 1.356447, -0.036312
4.671476, -1.492495, -3.791138
2.948042, -0.710284, -2.682677
4.903627, 0.028451, 2.081314
-2.178771, -2.261131, -0.47422
1.548075, 1.857434, -0.600093
-3.77152, -4.996942, 1.686467
1.51984, 2.019663, -3.978442
0.529307, -2.091981, 1.119651
-0.987957, -2.639054, -0.235816
4.109753, -1.280711, -3.605718
3.305174, -2.236587, 4.688888
0.48455, 0.594933, 4.707752
-4.441398, -0.753455, -1.776156
3.000837, -3.3547, 3.773959
4.953615, 1.204074, -2.4945
2.79807, 3.410282, 0.099801
-1.204384, 3.732986, 3.046898
0.842095, -2.264042, -2.039813
-3.274516, 2.136595, -1.590929
2.993546, -3.852197, 3.202821
-4.695591, 0.919666, 1.370954
0.281888, 2.151182, -1.044138
0.015629, -2.760504, 4.86008
-4.762946, -4.812422, -1.365127
-4.159221, 3.517104, -4.504323
0.894554, -4.683508, -3.577983
-3.610811, -0.662038, 2.516142
-1.707238, 0.757928, -4.081606
-3.404759, 4.909481, 4.143013
-3.675149, 1.901522, 1.663648
0.346912, -1.4807, 4.035296
4.205819, 3.525121, -2.839581
-3.26958, 1.507736, 3.341538
-0.605172, -0.303561, -2.751442
3.616647, 1.115067, -1.886215
2.297221, 1.832604, 0.867012
-4.519714, -2.531769, -4.961385
0.933332, -1.938084, -3.707661
-3.943526, 4.243826, 0.161333
3.773367, 0.88103, 4.346663
-0.587416, -4.05293, -4.227863
-2.000997, 1.629699, 3.727342
1.68588, 3.739452, -0.019059
-1.207778, -3.856161, -0.031484
3.573159, -2.407012, -3.486405
-0.391751, -1.150692, 0.584657
-4.354317, -4.751648, -0.631197
-4.986757, 4.824374, -2.938784
0.706078, 3.777754, 1.730264
-0.196346, 3.969263, -3.146845
1.306135, -0.342666, -0.402398
3.315396, -3.950444, -3.918681
-3.941817, -2.306835, 2.591032
0.729707, 0.449512, -3.806257
0.931581, 4.928765, -3.070289
-2.603233, 0.455278, 0.324124
-3.766447, 3.502093, 2.198848
-3.527902, 3.080118, 1.45458
3.517994, 1.963894, -4.189698
1.203431, 3.300799, 4.931384
-2.996837, 2.479099, -3.24144
-4.466082, -2.548822, 2.363698
0.859416, 0.273544, 4.625879
0.400236, 3.183026, -1.460537
2.761417, -3.978241, 1.95363
0.863835, 0.581466, 3.943135
-1.413235, 0.040648, 2.085412
3.154202, -1.612176, 1.280354
3.750014, -4.064953, 0.207301
1.84242, 2.316493, 3.045566
-4.430159, 4.643217, 0.108597
-2.431086, -4.957419, -0.984542
-0.510154, -0.360603, 1.821022
4.543805, -0.566476, 3.932699
-0.933289, -0.535458, 4.861255
2.039795, 0.615648, -3.422029
-3.88278, 3.317079, -2.448549
-1.612621, -3.942452, -2.423054
-2.449805, 0.859397, 3.921259
1.128986, -2.536006, -1.161067
2.293402, -1.726248, 2.185096
-1.779382, -3.763222, -1.666495
2.375653, -2.7442, -0.436268
-3.406668, 0.031969, 4.528313
-0.305316, 1.862449, 0.698903
1.172526, 4.615075, -2.935812
3.783411, -4.136785, -2.857682
4.166508, -3.440008, 2.205716
-4.36997, -0.06023, 3.321921
3.960794, -2.521758, 1.070321
-3.181013, -1.60991, 3.425939
-0.258894, 3.684241, 4.705293
-0.291234, -0.37814, -2.125004
-1.32314, 2.080877, 4.313229
1.141599, 1.59309, -2.265735
-3.882559, 4.921465, 4.611444
1.983451, 3.555433, -3.352963
-3.602691, -0.387984, -0.996755
2.815176, -1.475472, 1.481658
-2.716172, -2.944403, 4.381444
-3.327791, 0.027212, 4.401377
0.06957, 2.691274, -1.64954
-1.236274, 3.578839, 2.953863
-0.371825, 3.529186, -1.855749
0.144826, -1.627801, -0.389335
1.411384, 3.703731, 3.997655
-4.459488, 2.426315, -4.21216
-3.708035, 2.61873, -0.225844
-2.142317, -4.224238, 2.666622
3.457631, 3.390238, 2.416347
-0.65183, 1.144177, 2.453028
-2.845346, 0.731931, 4.608162
3.714443, 4.227554, -0.154437
-0.166596, -1.857719, 2.61936
-3.337575, -3.305852, -0.822706
1.152105, -1.180965, 0.026831
-1.429051, -2.68898, 3.346482
3.940465, 4.170638, -0.419237
-1.74182, -3.670842, 4.715368
-1.660135, -4.334368, -0.210861
-4.499877, 3.323374, -0.534777
4.675544, 3.599743, -0.501142
-3.574624, 4.480518, -1.758082
1.202415, 2.49271, 3.398639
2.669771, -4.824254, 4.118082
-3.189555, -4.33237, 2.867051
-3.028115, 3.318629, 4.434706
3.92724, -2.070966, 3.767023
2.606908, -3.271302, -1.265598
-4.831751, 4.546675, -2.386981
1.037497, -3.775491, 0.772687
-3.565896, -1.938488, -2.993491
-1.350598, -3.23938, 2.215736
-1.311367, 4.946799, -2.369482
0.403775, 3.955838, 2.812522
-2.953749, 0.718262, 3.739208
0.866584, -4.32933, 0.721588
-2.911811, -4.219245, 0.614013
-3.101202, 0.877793, 1.501672
-2.38857, 1.531858, -3.026158
0.29713, 1.017973, -0.006035
-0.403539, -3.320184, 4.266914
-4.715636, 2.768586, -2.912148
-3.986436, -2.526108, 3.194713
-3.830669, -0.166507, -2.372906
-1.950015, -1.282819, 4.076697
-4.103743, -2.844818, -4.867838
3.892845, -4.851984, 3.957629
1.511089, -2.471949, 3.87209
-2.522236, 4.172271, 4.807251
-0.877807, -3.48745, 4.892615
-0.843399, -1.752021, 3.60479
-3.83433, -2.603087, -2.655746
1.786836, 2.067387, 2.960907
-0.150735, 0.246963, 1.462758
0.324245, -1.430025, -1.255153
-1.009438, 4.16418, -4.951099
-0.495944, 0.921536, -2.573441
1.439689, -3.70371, 0.67145
-1.171055, 0.557174, 1.799405
2.69555, 3.206645, 1.766871
-2.794373, 3.942561, -1.610374
-3.544307, -4.093325, -3.169565
0.961222, 1.783365, 4.021216
4.901751, -1.753588, 1.382938
0.910546, 1.690212, 4.103309
-2.611525, -3.509714, 3.959705
-1.022441, -1.071601, 4.83343
-1.501791, -2.345963, 1.175607
0.580761, -2.909179, -0.66605
2.819629, -0.429166, -1.001127
0.312178, 1.065619, -4.41916
-2.189234, 4.971364, -3.127085
1.045089, -2.981779, 3.546317
-0.61183, -4.639986, -2.904848
-4.373435, 0.567039, 2.10537
0.465811, -4.532836, 0.131103
-0.496904, -2.250886, 0.414016
0.50558, -0.551447, 2.162074
0.734418, -3.551675, 4.803348
0.800594, 2.102124, -2.015707
-2.625418, 3.218804, -4.228523
-2.95037, -3.199057, 0.650192
-2.588619, -0.339138, -3.485842
3.968885, -4.786746, -3.81803
-1.236015, -1.439379, 3.046258
-3.007839, -4.639383, -0.281232
4.182256, -0.13035, 3.64789
3.546708, -0.183922, -3.455798
-1.187166, 2.489477, 1.468726
1.085461, 3.216152, 2.939932
-3.730897, -0.08493, -2.258987
4.81783, -0.460928, 0.174876
-4.875513, -0.926554, -4.839884
-4.314348, -4.486544, -0.338389
-0.153652, 4.345807, 2.607772
0.324568, 4.593564, -4.583955
1.119677, -3.573018, 4.094772
1.931549, 0.682251, 0.790258
3.193511, 4.816127, -0.341826
-0.69574, -0.596477, 3.393358
3.456884, 2.99637, 1.717941
-1.517754, -4.486882, -0.807944
4.72263, -0.579913, -2.206958
1.622378, -1.380346, 2.207417
1.861589, 2.851104, -4.302999
-0.364825, 4.018947, -0.962309
3.6792, 3.746729, 4.056016
-3.763395, 4.111813, 0.38483
0.881729, 0.290903, 1.745887
4.372463, 0.046698, 0.702186
-4.825745, 3.918147, 4.871911
-2.307579, -0.431162, -4.635255
3.354507, -1.580888, 2.070116
-3.105473, 3.898673, -3.100461
4.668991, 3.648936, 3.352423
-1.415244, 1.806113, 2.26482
2.501126, -2.530553, 2.596386
2.985048, 4.190735, 0.120446
-4.574138, -1.939635, -4.310172
0.123652, -2.664424, 3.778448
3.019578, 0.088495, 3.472894
1.69452, -0.479268, 2.796941
3.609604, -2.637117, -4.095275
-1.204682, -1.995203, 3.729739
1.21541, -2.359738, 0.124657
0.431463, 0.544776, -3.06908
-1.926421, -4.090717, 2.827481
-3.904903, 3.386457, -0.677772
-1.485979, -0.587102, 1.393317
-0.677206, -0.682357, 1.156827
-2.673141, 3.210465, 2.713286
1.317103, 3.9693, -1.119986
3.969774, 0.158186, 4.73671
-0.340734, -1.75093, -2.050034
-3.581709, 0.887733, 4.431128
3.092928, -0.225999, -3.607512
-3.859171, 1.408182, 4.366106
4.406648, 2.469651, 0.913216
-1.659397, -0.544162, 0.705134
-3.477898, 4.592782, 3.179945
-1.912302, -0.967613, -0.984347
-1.72468, 2.191249, -1.641783
0.85781, 2.481151, -3.345058
-2.487146, -0.962842, 0.067647
4.687353, 3.268995, 1.829566
-3.070752, 3.070413, -1.428272
4.654348, -4.414644, -0.281787
4.812937, -1.671234, 2.953339
3.170786, -2.947882, 2.330281
-3.842441, 4.374704, -2.3865
-2.288252, -1.186494, -4.329579
-1.892715, 0.81402, 2.254466
-2.976217, 4.570141, 2.566113
4.819588, 2.616152, -4.392411
4.612078, -2.258837, 3.114304
2.496742, -1.104477, 3.163423
-0.229966, -4.279104, 2.930314
-1.896741, -0.259983, 4.728098
-2.46898, 4.928593, 2.808443
3.941906, -0.742498, -3.82366
2.439392, -4.643528, 0.113582
3.244104, 3.988158, -4.189366
2.584919, -2.680927, 3.918196
-0.265343, -0.909627, -1.637101
4.908962, -1.36569, 3.582682
1.241734, -1.57536, -3.386202
-0.451085, 4.720149, 3.563025
1.211065, 2.965895, 0.476
-0.430622, -0.921661, 1.395024
2.312518, -2.467426, -3.444251
0.56443, -0.586041, -2.978129
-3.24739, -0.677311, 3.40348
3.6095, 3.277796, 3.199421
2.195054, 0.741426, 4.475943
4.503764, -2.984769, 2.071443
-3.131119, 4.053306, 3.70593
4.368858, -3.983896, -3.552598
-2.653992, 1.557152, 1.90166
0.769073, -2.883339, -0.091655
2.447653, -4.14141, -3.284058
-3.97491, 3.634126, 0.585804
1.66822, -0.843549, 0.85578
-2.489815, 0.936542, 1.107919
4.024804, 0.183633, 3.786349
1.358867, -2.422517, -1.205995
-1.275352, 2.161969, -3.399814
-4.261714, 2.510772, 2.87496
4.789958, -0.005181, 0.48943
1.419525, -3.455624, 0.400795
-0.861559, 2.899542, -3.027206
-4.999494, -0.282127, 1.91216
-2.711917, -0.135285, 4.103902
4.696929, 4.790218, 2.262041
-1.858109, 1.331834, -2.188012
-3.815891, 0.031565, 2.194525
3.634169, 4.21745, 2.248061
4.338687, 1.333626, 3.222194
-0.235003, 1.494168, 3.796699
-4.667314, 0.654832, -3.292337
1.81271, -0.830033, 1.670619
2.480837, -2.036074, 4.512425
3.036593, -4.899821, -4.871457
-1.650125, 4.909576, -1.744941
-2.02204, 3.532672, 3.572994
-0.686533, 2.641938, 3.577948
-3.21499, 2.125255, 0.031065
-0.380941, -0.281055, 1.97183
0.589996, -1.762879, -2.246218
-4.003708, 0.875452, -3.796247
0.145278, 4.526698, 0.79787
3.557434, -4.707175, 2.545471
2.698288, -1.427516, 3.484413
-2.290112, -0.05823, -2.246286
3.005818, 4.317739, -1.750706
-1.31478, -3.61285, -1.702048
-2.224828, 2.906039, 0.801601
1.150685, 3.40063, -1.652825
1.351158, 0.73127, -1.477108
1.053723, -0.899867, 2.696155
-2.186815, 3.716062, 3.071387
4.86837, 0.661896, -4.009725
-3.283099, -2.621063, 0.266322
2.329053, 0.821137, 1.721047
2.47617, 1.537663, 1.142074
4.735861, -2.108814, 3.0605
2.130334, -0.433387, 4.671122
3.377715, 1.013753, 3.321585
1.543491, 4.960059, 0.075595
-2.922961, 1.336142, -4.166812
4.030865, -0.893705, 3.981911
-3.020617, 0.969018, -0.618158
0.753381, 3.305049, 1.520212
-3.185192, 1.781023, 3.922638
3.664104, -2.601347, -1.145507
0.655949, 3.548845, 4.879714
3.737906, -3.259297, 0.568672
-1.134971, -0.135207, 3.647611
0.801743, -1.21814, -0.309223
-1.745021, -2.761084, 0.627537
2.956734, -2.771726, -3.40368
-0.822953, -3.874719, 1.270811
0.920225, 0.223336, -4.416513
-4.967628, -0.721097, 1.558636
0.927809, -4.797579, -2.24317
1.688116, 0.158222, -0.78644
-0.54117, -2.26739, 2.286021
4.958039, 1.314006, -0.512886
2.860548, -1.271092, 0.014548
-1.732909, -1.059173, 0.475556
-2.997512, -2.542628, 3.754725
-1.164079, 3.202814, 4.277679
-1.830213, -2.72335, -4.327335
0.350428, 3.69564, 0.903549
-2.968759, 0.602844, -1.665438
-0.489651, -3.841432, -0.422222
-1.765278, 3.658374, -1.117675
3.304279, -2.929483, -3.249511
3.33394, 1.132324, -4.872104
-3.109691, -3.167707, -4.997345
-2.601517, -4.653553, 4.192814
-3.778592, -3.693352, -2.844632
1.270683, -1.900245, 2.857556
3.725835, -4.106743, 3.524115
3.597527, -2.832025, 0.397439
-1.735257, 4.549203, -4.276962
-0.148058, -3.938291, -2.110842
-1.544156, 1.054996, 3.034135
4.72625, -2.476759, -0.693516
-3.309118, 2.608752, 4.900009
2.731416, 4.245196, -1.996869
-1.909287, -0.406939, -3.425372
-1.583426, -3.90916, -1.016179
-1.230296, 0.014317, -2.278015
-4.705909, 0.992154, -4.81569
-0.609467, -2.273338, -4.955874
3.574157, -2.031395, 1.295627
0.474576, -3.709593, 1.297532
4.002855, -2.397345, 3.512127
-4.04026, 0.685378, -0.018106
-0.0425, -4.701475, -2.3764
2.74551, 4.072622, -2.429224
0.770104, 3.223509, -1.586719
-4.660541, 1.424308, -0.529519
-3.347092, 2.973424, -1.16231
1.395724, -1.941977, -1.935078
-3.868918, -3.233948, -4.885056
-1.635885, -1.838583, 2.159455
-3.747823, 2.340456, 0.121707
-0.492069, 0.791111, 0.860718
-4.578611, -2.571684, -3.312135
-4.522596, -1.174377, -3.720262
1.716556, 2.261333, -2.328131
-1.036889, -0.045725, -1.85222
-0.584453, -0.731998, -3.927518
-2.982031, 4.766049, -1.067171
-3.585822, 0.276414, -3.220879
-2.365213, -4.517759, 0.644357
2.628798, 3.311536, -4.304813
4.84209, 4.262074, -1.139246
4.627131, -1.026651, -3.498106
-2.202799, 0.032766, -4.167127
0.566932, -2.348946, 3.196112
4.449787, 1.340742, 1.976357
-3.554546, 3.938361, -0.1602
3.158877, -3.183152, -4.577962
-3.657435, 4.5843, 4.815467
0.607191, -4.925598, 2.613928
-2.36868, -3.381775, -3.315181
-4.805407, 0.585425, -0.345687
2.130198, -3.311318, 3.489226
3.460815, 2.565813, -0.618298
-3.814612, 2.447167, 3.387226
1.997503, 4.290643, -3.503477
4.751384, -1.042882, -0.408719
4.65149, 2.881927, -2.985395
1.816467, 0.461331, -1.789995
0.898777, 0.055755, -2.287705
-0.290494, 1.215754, -4.057673
-4.898013, -4.493934, 3.526537
-2.808691, -3.578287, 2.956104
-2.334638, 2.671563, 1.426964
-2.994256, 1.264265, -4.908225
1.904142, -4.861043, 1.089518
3.418068, -4.761478, 4.088509
-1.083244, -3.786406, -4.062218
-0.144987, -4.139146, -2.322769
2.154244, 0.335911, -2.068903
-1.1588, 0.9632, 1.065629
-1.926572, 4.928347, 3.486428
-2.624543, -0.046069, -4.88601
2.157253, -0.565676, -0.195415
-4.030289, -0.180052, -1.756872
-1.90236, -0.915969, -4.813248
0.110956, 3.818807, 0.736319
-3.105104, -0.845942, -2.492906
4.865215, -3.325497, -2.977616
2.698317, -0.637043, 1.868065
2.987217, -0.522214, -2.213036
-3.117807, 1.511289, 0.985465
-0.994432, 0.592097, -3.767866
-2.420753, -4.445448, 0.956742
3.804818, 2.596601, -2.099963
4.157791, 4.602359, -1.913556
-0.004041, -4.522062, 4.380716
1.914128, -3.833915, -0.330501
-4.7414, 3.178768, -3.56589
2.487447, -3.480932, -0.873923
-4.378199, -4.973909, -4.477467
3.629461, -1.044686, 3.454557
4.688331, -3.814537, 3.550214
-4.803455, -3.429759, 2.364637
2.381653, -4.7135, -4.36604
3.993437, -3.87011, -0.562554
-4.602586, -3.568359, 2.120199
-1.110385, 3.003087, -3.81729
-1.341084, 4.136884, 1.1055
-4.220216, 3.780096, -0.559439
-0.34027, -2.596963, 4.594198
-0.736752, -3.990602, 2.819393
2.182149, 2.968921, -0.406714
3.516035, -2.121589, -4.015853
-1.942011, -0.269657, 2.443002
1.985425, 1.473731, -0.752931
-0.814313, 4.592185, -2.092182
4.868989, 2.482672, -3.205248
4.96742, 2.815064, -1.685393
-1.742982, 2.418212, 4.479298
-1.178682, 4.051454, -2.654156
2.295195, 1.539124, -1.715895
-2.079453, -3.432605, 0.925652
-3.488345, -1.368821, 1.719799
-2.693146, 1.243398, 2.223551
4.220178, -1.481551, -2.374387
2.01541, 1.824643, -1.854796
-2.628425, 1.333077, 4.702041
-0.030847, 3.370648, -3.363652
2.074299, 0.114945, -2.621233
-0.850773, -3.763011, -4.536065
-2.423222, -2.805649, 1.499029
0.027405, 1.698813, 2.263205
-1.805288, -4.985031, -1.464745
-3.945398, 0.915636, 1.733873
-0.321242, -0.923577, -0.421211
2.533724, -4.076675, 2.176114
-2.688233, -3.428302, -3.632504
3.146444, 1.122076, 1.720913
2.564017, -3.762084, -2.675848
-1.314099, 2.566008, 1.433399
2.084946, -2.442644, 4.850945
-1.180376, -1.738885, 3.847789
-1.280352, 2.216007, 0.170819
-1.953442, 1.892025, -0.398114
1.39464, 3.994274, -2.961236
2.41086, -3.360308, 2.741199
4.351194, 4.59605, -4.241323
3.399516, -4.827662, 0.287604
-3.906436, 1.41077, -0.61759
2.91482, -0.648538, -4.124528
-4.266153, 1.507837, -3.975799
3.740804, 2.873018, 3.433069
3.071197, 3.70627, -0.30841
-3.248622, 1.108817, 2.646434
4.956923, -3.469228, -1.233832
-4.652303, 4.953367, 0.291716
-2.75685, -1.853588, -3.426269
2.599951, 0.886119, -4.526509
4.331991, 3.940815, -0.758589
-2.81167, -2.008261, 2.22362
-3.882945, -0.471463, 1.615438
4.947965, 4.684101, 1.090854
-0.84154, -3.570774, 4.821949
1.079211, -4.17149, 3.891064
2.727413, -4.603408, -2.480338
-1.605271, -2.489483, 3.49497
-1.893847, -0.822231, 4.221089
-0.273682, 4.048422, -3.329593
0.567871, 2.772381, -2.074272
4.651021, -3.133746, 4.056839
0.006736, 0.904601, -2.367952
1.336188, 0.741631, 2.712618
-0.177019, -0.731147, -0.835071
0.946649, 1.615204, 1.635592
1.949413, 2.602842, -3.946621
0.347016, -1.368013, -4.030256
0.49921, 1.829474, 2.508882
1.492701, 0.095023, 0.938515
-0.304497, 1.261617, 3.776978
0.404691, 3.181006, 1.103981
0.354063, 3.703923, 1.105655
-4.207046, -4.137513, -4.657762
-2.794302, 3.983691, 2.621481
-2.531947, 4.964334, -4.264011
-2.988802, -3.774103, 4.941037
-3.438107, -3.943177, -2.499856
0.130853, 4.611783, 3.629
-2.311508, 0.424008, -3.348634
1.568393, 1.098698, -3.753052
1.687976, 2.543748, 1.808681
-3.617397, -2.794684, -0.274287
4.786658, 1.324895, -0.658361
-3.16358, -1.716583, -4.360101
2.370913, 3.398279, 4.676527
1.471665, 4.870924, -4.01505
-2.670151, 3.912476, -3.486574
-3.312617, 3.617592, 1.082513
-1.487499, -4.074167, 0.778151
2.719838, 4.005299, 1.286232
3.20417, -2.295928, -3.305635
4.14764, 0.82797, 4.896873
0.62053, -2.335631, 4.027489
-0.950209, 2.35345, -3.49714
-4.456321, 4.532494, -1.415844
2.385378, -4.972858, -1.024323
3.026348, -2.837338, 4.77747
-4.554314, 3.223957, 1.844484
-2.974174, 4.676418, 3.359035
3.021045, -4.696887, -3.858877
-3.122122, 3.4012, -4.300938
-3.643232, 2.031107, 3.237398
-2.404955, -0.771714, -2.775009
0.09257, 0.333485, -0.554241
3.153414, 4.871331, 1.300646
-4.151946, 3.674609, 4.259221
-3.9961, 1.198324, -4.177648
4.189793, 4.559602, -4.224628
-1.723404, -1.661283, 4.415793
1.755856, 3.210338, -3.1511
-2.8733, -1.609639, -1.543983
0.713258, -4.829429, -0.495695
-1.171875, -4.747971, 0.423451
1.797534, -0.439481, 3.4921
-4.039078, 4.35995, 1.306259
0.621888, 1.49649, 0.236096
1.987376, 4.554022, -2.1924
0.744244, -3.371865, -0.612087
2.564493, 2.778623, 4.10966
1.890749, 1.048118, 2.162804
3.924984, 0.478251, 0.888756
3.60516, -3.073959, -0.599101
2.459974, 4.7515, -4.958211
-3.019444, 1.044448, 4.316773
-0.852848, -3.556883, 4.70218
0.60577, 2.147484, 0.151571
-1.871818, 4.495627, -0.653714
2.483763, 1.238309, 0.76085
-1.603652, 1.57054, 3.391929
3.464491, -4.0583, -2.409287
-2.948975, -0.368738, 0.660832
1.178933, -0.828, -0.627528
-1.618477, -4.331443, 4.033212
4.164113, -4.308247, -4.149977
-3.662223, -4.327637, -4.170415
-2.395085, -0.162254, -2.667982
-3.628773, -0.812501, -4.224942
1.430265, -0.350414, -3.644514
1.715085, 0.050493, -1.11202
-1.07733, 2.035284, -4.249062
0.800873, -2.710534, 4.559577
-4.163276, 0.79301, 2.060187
1.476508, 2.275748, -3.541185
4.295124, 3.01092, -4.145521
-0.989862, 3.573601, -3.084684
3.854597, 0.061067, -4.934997
1.918644, 1.104203, 4.976733
-4.350656, 3.214203, 1.208382
-2.559458, 3.012125, -3.064732
2.414526, 3.102373, 0.847684
-3.059663, 2.873122, 4.349131
3.740216, 3.66709, -0.510959
0.851454, -3.812088, 2.176394
0.964671, 4.162215, 1.177406
-3.474426, -0.292686, 2.696217
-1.893072, -2.316998, 2.560544
0.223259, 1.443372, -1.186997
-1.822386, -4.996605, -0.777949
4.813713, 2.629872, 0.884921
-0.276304, -3.897639, -3.465946
-4.676055, 2.574363, 2.790595
4.337717, -1.427552, 4.992771
2.253818, -1.518558, 4.76991
3.961775, 3.510258, 0.556754
-1.365171, -2.809605, 3.293275
-1.80861, 0.433908, -4.139883
-2.948823, -3.169899, 4.787723
2.294126, 1.588676, -4.5638
-1.456658, 2.126441, 4.185129
1.45315, 1.289865, 3.692128
2.041941, -3.151583, -4.003304
4.774876, -2.816932, 4.683291
2.882076, 2.204937, -4.350799
0.803681, -3.171802, 1.0727
2.730894, -3.387477, -0.710406
3.462243, -0.987139, 2.911873
2.362339, 4.288934, -1.245984
1.156759, 2.252829, -2.047053
0.178286, 4.205487, 1.984792
-1.143798, 4.093783, 0.79417
3.440764, -0.563208, 4.38945
-2.706935, -1.016049, -0.943481
4.874402, 4.821176, -1.156493
-4.063283, 4.783599, 4.671066
2.192418, -1.055147, 2.923023
-1.610521, -0.563492, 4.436902
1.615458, 2.002358, -1.263525
-2.12736, 3.272301, -4.929946
3.166826, -1.501954, -2.141683
0.027697, -4.363167, 1.014355
0.372192, 3.572845, 2.755878
1.976626, 1.435012, -4.705365
0.278894, -2.299283, -0.626487
-0.917416, 3.465706, 3.335981
-2.590682, 3.69941, 4.148759
-3.73196, 0.002448, 1.261103
0.199011, 0.020528, -2.001155
1.466805, 0.60875, -2.536786
-2.765531, 3.837903, 0.322159
-0.185617, -4.459218, -3.742649
-4.675256, -2.658418, 2.65843
1.804009, -4.643985, 2.432418
-0.924763, -2.268505, -3.640541
4.724006, 1.336397, 3.180634
4.833032, 3.426979, 0.325151
-4.413874, -1.354893, 3.984305
0.575672, 0.130642, 3.863446
-2.158059, 3.261304, -2.442001
3.112079, 0.60509, -1.963264
-1.978483, -2.136558, -3.778189
-1.372604, -2.247768, 4.801849
-4.951714, 2.389025, 3.53387
0.035262, 4.112656, 4.031316
3.74337, -1.822882, -2.222607
-2.933967, 1.846231, -3.923226
4.462181, -1.356439, -2.293265
1.327439, 2.953856, -1.376662
1.460389, -4.651252, 2.75507
-3.633782, -3.649562, 3.813645
3.527837, 0.985737, 2.926179
0.080262, -0.795084, -4.636023
-0.025959, 4.629057, 1.158903
-2.893235, -2.513689, 3.774349
-0.17019, 4.615218, 1.610799
4.615497, 3.177785, 2.040665
2.256599, 4.234211, 4.846512
0.289274, -0.138813, -3.893222
-2.00253, 0.250151, -4.124449
1.324493, -1.47679, -0.920545
0.972774, 1.29198, -4.229428
1.158575, -4.734805, 0.704902
-1.611873, -4.524701, 1.674743
1.663937, 0.557805, 2.423663
2.753101, 0.599106, 2.419329
-3.441091, 3.752034, -2.020603
-0.303527, -3.655719, -3.489288
-3.343175, -2.960284, -3.612095
-2.485515, 3.249207, -2.423254
-0.597512, -0.650787, -0.021434
0.519159, -2.476214, -4.723538
4.258641, -2.342586, -3.321462
-2.367469, 1.379433, 0.033901
-1.450309, 0.929164, 3.961201
0.986569, -2.93524, -1.910409
-1.984119, -0.525357, -4.087113
2.401396, 4.048897, 2.930676
-3.845637, 1.708498, 0.199043
2.744257, -0.788565, -1.538924
1.33886, -4.330264, -0.695292
-4.845728, -4.322952, -2.513807
0.988949, 1.507786, -1.023831
-2.120652, -3.438262, -0.551683
-0.221998, -2.711749, -2.987208
-4.091891, 3.898171, 0.689464
-3.06358, 3.018771, 3.072354
2.279572, -3.436833, -3.43098
-4.100106, 0.690425, -0.15835
3.033765, -1.902878, 3.536301
-2.773557, -3.567842, 4.502278
-2.10459, -4.484903, 3.778401
-0.086379, 2.728029, 3.879342
0.573418, 1.458285, -2.418061
-0.116222, 3.333553, 0.924871
-0.136065, -1.647558, 3.645936
3.966089, 2.789977, -0.675838
-0.846452, -4.959952, 1.040852
0.994179, -3.839204, 4.474197
-2.524989, 2.668597, -2.396066
-4.939123, -4.163918, -2.534796
-1.681936, 3.121382, -4.288759
3.716779, 1.95601, -3.964468
-0.8913, 3.577036, -4.691186
4.188868, 4.161896, 2.874113
-3.176353, -4.778633, 0.008168
-3.57122, -0.434863, 3.261325
-4.716746, 2.997918, 1.854526
-0.794551, 1.095443, -4.150724
0.04608, -1.730854, -2.891271
-3.462682, -1.276982, 0.675357
-4.683616, 3.402043, -1.418998
-2.671002, -1.637489, 0.10691
3.48476, -1.049718, -4.019353
3.82154, -1.913044, 3.20298
2.972093, 1.391438, 0.639599
-4.633379, -1.337646, 2.522429
2.068391, -3.71087, -3.452799
-2.48835, -1.563957, -1.07426
1.775415, 1.981649, 1.529147
4.547606, -1.871471, -4.78973
2.602308, 4.03186, 1.880198
-3.063805, 1.968648, -4.888409
-2.013579, -4.387913, 0.237616
-2.345154, -4.787594, -0.689927
-2.867665, -3.676963, -2.814904
0.243511, -4.939535, -0.029368
0.939012, 4.059828, -1.507128
2.803213, -4.843785, -0.275995
2.79301, -0.581439, -3.373425
0.236147, -3.383091, 2.768254
1.852284, 2.973129, 3.64834
-2.475067, -0.435551, -3.216058
-4.30406, 3.743502, 4.274083
3.568276, -4.534454, -3.419813
-3.505886, -2.880705, 0.047379
0.683995, 1.409749, 1.039728
-0.555846, -0.469857, 1.569592
4.640066, -0.483838, -0.414218
-3.714091, 4.047004, 4.109046
-1.349232, -3.475056, -1.670416
-1.83094, -2.638711, 0.639231
2.268752, 4.913361, -4.299272
1.622101, -0.259308, 2.211187
2.818573, 1.40158, -1.357882
0.140316, -0.576205, -0.128575
3.152733, 0.257891, 0.243483
2.462813, 1.209807, 1.992337
2.741787, -4.330082, -4.091123
-2.273673, 4.162209, 0.446999
-2.925175, 3.762777, -1.766534
2.361902, 4.562834, 3.214616
0.629268, 3.218752, 3.563941
0.491692, -1.048697, -0.383531
-4.454839, -4.713168, 1.933076
1.707652, -1.448479, -4.624366
0.329737, -3.98292, 3.756005
-1.463789, 2.108257, -1.267645
-0.496711, 1.943697, 4.94481
-0.026731, -2.893747, 0.404722
-3.052374, 1.336511, 3.356669
-4.678277, -4.380678, 3.023788
0.701058, 1.141191, 4.025573
-2.184331, -1.198105, -3.535154
-0.068482, 0.864711, 4.683969
-0.707888, 0.21491, 4.947986
3.786307, -1.077229, -4.792781
-3.090051, -0.349203, -0.841975
-3.487729, 0.959261, -0.884359
-2.100274, -1.160229, 0.111651
-0.628535, 1.611434, 1.790555
2.442458, -1.586906, -1.892448
1.642308, -2.953388, -1.548167
1.139633, 3.084949, 3.298082
2.398597, 1.030898, 3.052382
3.007879, -0.565973, 3.533051
-1.344155, 0.85925, -1.29761
-2.683696, -0.470921, 3.649725
-3.379249, 2.338964, 4.47689
2.870033, -1.61714, 0.862413
0.509047, -2.706547, -2.082195
-0.003782, -0.305839, -0.19966
1.302644, 0.943575, 4.867436
-2.151545, -2.758485, -1.922515
-3.2179, -2.219054, -2.031483
-1.067111, 3.771225, -3.988098
-1.082359, 1.24456, 3.29462
-2.583909, -4.542959, 3.671532
-2.52058, -0.314895, 3.739156
-4.0967, 0.876825, 4.423441
-1.015607, -3.782796, 0.208052
4.669858, -4.209042, -0.235776
-4.16764, -0.12639, 2.229361
4.482902, -0.113319, -0.17236
-3.889789, -2.037029, -0.009541
-4.14502, 2.238381, 1.226516
-4.402882, 3.681183, -0.186347
1.467113, -3.178841, -4.185535
-4.204614, 2.081762, -3.799647
2.052048, 4.297548, 1.609424
3.92587, -4.85442, 0.542269
2.793996, -2.453237, -2.158104
-0.209524, -3.05975, -0.562807
-0.790545, -3.166283, -1.197331
-1.104152, 2.307213, -1.176983
-4.993678, 0.681093, -3.815772
-2.57717, -0.627914, -1.709784
-2.478048, -0.61985, -0.194669
0.508825, -1.448565, -0.691299
1.219566, -4.876432, -2.821224
1.037101, 3.422281, -3.98406
1.765922, -0.283036, 0.425132
-2.21353, 4.772176, -3.024426
1.867318, -2.307338, -2.171836
4.704091, -3.126102, 4.092143
3.416247, -1.68598, 1.029451
-2.446268, -3.745469, -4.554821
-3.724704, 0.015781, 0.214735
-4.59451, -4.34268, -1.928093
-3.662042, 1.069372, 0.265077
2.144112, -3.926598, -3.329215
-0.081534, -1.165601, 1.376557
-4.016567, 3.295474, 0.989765
-3.810848, -2.715014, 4.58842
-2.289457, 4.379115, 0.173582
-3.653225, -1.003908, 1.404347
3.202002, 4.636813, -0.018101
3.78716, 1.821578, 1.804628
4.258267, -4.199951, -3.85545
0.470872, 1.33638, -4.762204
-1.048458, -3.069551, 0.438901
4.535743, -2.509526, -0.537788
2.435049, 0.960906, -4.967847
3.695899, -2.783987, 3.957059
-4.108208, -3.641305, 3.67631
2.586945, 2.516354, 3.951704
-4.044635, 1.667196, 2.210437
-4.063941, 2.868418, 0.586873
-4.626242, -0.666972, -0.604932
-1.958733, 0.832458, 2.446884
0.163452, -1.598547, -3.1222
0.460868, -2.010414, -4.081507
-3.319371, 1.004529, -3.248876
-1.09306, 2.916508, -3.721569
-0.063933, -4.791626, -4.65297
3.348003, -1.144291, 3.22967
4.487884, -1.963377, -2.410109
2.970675, 2.490143, 1.751055
4.928066, 3.772325, -0.260303
-2.36844, 2.006253, -2.922613
3.670298, 4.141726, -0.925103
4.315818, 0.896872, -4.392882
3.923596, 1.681599, -0.956626
